21592.336413269506,29723.314996089866,7.0753517550814795
21583.31820893499,29941.845253460007,6.112052560225646
21584.286238202007,30106.538702928185,5.573655736061566
21649.894455210848,30369.981029602342,16.585836784630548
21568.619398964303,30459.02506429734,18.666520367452506
21597.27876903819,30715.598039837474,25.358272427165975
21622.030627503766,30923.009745805404,65.15043700002806
21555.15246588274,31054.580734904317,68.9295576827415
21595.736181305707,31248.103380167355,19.565575060636903
21446.275711858118,29781.655569096347,6.2783261135025
21387.55085998551,29979.780242909343,11.17513125787763
21411.040040464457,30118.710058968172,13.989602523262779
21406.436987499193,30307.527657126266,6.413824253279135
21409.315069428878,30517.26266207714,8.920629519269971
21388.913149681048,30757.041595575658,32.29115374468325
21447.91594651268,30926.879652464173,31.759706199825725
21417.269795023854,31120.70539753419,70.23391078889436
21436.95297738279,31283.292876646068,27.358990304095006
21401.642726142658,31469.560184036847,14.252879810244215
21249.997934664618,29964.58915323914,6.165135170695272
21239.496805068648,30153.85588498045,12.250353852557302
21245.78646875245,30372.799745941866,6.240009135104168
21224.25999855636,30479.801040233186,12.515075883372223
21226.18434304439,30714.424640370125,32.70056069136759
21169.119972622655,30923.71354767587,23.43039191002412
21216.884310164794,31055.44212080802,39.27495260363989
21251.427225355605,31306.560081569136,26.163174497275875
21225.82896358752,31484.28284445789,13.510053333193639
21110.779816147,30047.01735609006,6.154646226534423
21041.150361908552,30121.46758175055,11.526946749654655
21035.799280366795,30303.099928237156,6.360027954491374
21065.30307058044,30508.725650752043,9.90720355801282
21041.43753811676,30712.680223869887,23.655036868907448
21043.518409668868,30905.149404530108,18.916192508746416
21010.70726751422,31041.81106703293,24.431085676030076
21025.757708995156,31282.057202225355,36.63062898706161
21029.717605874448,31461.338675541145,24.94697593016152
20895.279335960036,30176.29268752132,6.160988775698311
20859.14321963717,30330.105925829717,6.999247807599138
20851.202706552715,30712.838168948474,4.844711266021927
20899.961349308207,30898.691558502716,11.989141542577332
20912.23591412134,31092.748461369767,20.739531176745988
20868.357857773684,31306.401179958724,28.29721287061508
20799.190272529373,31411.257868365738,27.385581762457264
20673.996810293596,30310.455276904664,5.986015438109556
20688.09145474928,30498.570529005017,5.435451289479841
20620.1766166315,30698.560484329962,7.092088779053414
20613.934364464993,30913.441671709843,8.752937617185959
20637.248299144492,31101.93393430613,9.309354962595162
20619.47325273702,31267.24540119103,9.705721827409425
20765.510163025712,31398.946402181253,29.639365762498194
20530.98637029027,30388.90959963771,5.6753024114342505
20497.438141472485,30508.594908785686,7.814245035498223
20490.30014311127,30703.874969606295,7.432330909850791
20478.339943264185,30858.973743194343,7.868177605880725
20494.53179800303,31105.133672945572,9.406286824184056
20478.480940523677,31348.894222319977,8.695910211839305
20508.090748519742,31500.14244299454,8.729596101313302
20314.943743150325,30517.144736397648,5.2986602450242914
20283.49187771735,30700.679393516493,4.7873777550496
20302.024283714396,30902.93437206022,8.078710741375179
20309.164410573772,31097.77826599572,8.029370325172156
20308.294322256614,31301.851461609156,8.49693887999472
20309.13583064748,31491.7110833333,8.261942622321195
20108.312504138277,30369.643218844474,5.459593009094002
20135.589868333707,30514.634562299732,5.393415375438563
20189.436297280005,30747.2084930828,3.47165580596876
20121.814410462153,30906.048199054356,8.639323563026231
20158.347209684584,31092.33678781941,9.63234918233557
20114.140412775974,31284.562487501957,12.80787372863901
20128.483826951375,31485.88791672224,8.424402997559834
19998.249321848543,30953.36212673463,2.798935864746125
19932.316634038496,31094.14579156771,9.134823123325054
19940.15660432034,31298.189523623005,12.16299010805297
19904.09408902343,31582.11761035252,8.211222170917598
19811.314563738615,31147.80772567211,6.6129679641515136
19784.997108861025,31258.501111201927,10.673407297842086
19820.1899494737,31578.064417315167,8.226919069404854
